# .PCD v0.7 - Point Cloud Data file format
VERSION 0.7
FIELDS x y z rgb
SIZE 4 4 4 4
TYPE F F F F
COUNT 1 1 1 1
WIDTH 58
HEIGHT 1
VIEWPOINT 0 0 0 1 0 0 0
POINTS 58
DATA ascii
-7.2568851 2.2063 -1.9852387 2.3509528e-38
-7.2419462 2.1190751 -1.9749655 2.3509528e-38
-7.1524978 2.3394771 -1.7836194 2.3509528e-38
-7.06745 2.2707176 -1.7594186 2.3509528e-38
-7.0594397 2.227386 -1.7544936 2.3509528e-38
-7.0391026 2.1804631 -1.7465744 2.3509528e-38
-7.0500407 2.1434135 -1.7464764 2.3509528e-38
-7.0372906 2.0993009 -1.7405678 2.3509528e-38
-7.0558805 2.0646303 -1.7424649 2.3509528e-38
-7.1021075 2.0378008 -1.7512187 2.3509528e-38
-7.1155062 2.0013347 -1.7519115 2.3509528e-38
-7.1719441 1.976698 -1.7632316 2.3509528e-38
-7.0981722 2.4459271 -1.5958666 2.3509528e-38
-7.001183 2.3715212 -1.5712441 2.3509528e-38
-6.9858789 2.325587 -1.565052 2.3509528e-38
-6.9331694 2.2677381 -1.5505589 2.3509528e-38
-6.9609299 2.2364933 -1.554124 2.3509528e-38
-6.9400611 2.1897197 -1.5468807 2.3509528e-38
-6.9565182 2.1548812 -1.5480098 2.3509528e-38
-6.9514866 2.1134503 -1.5444036 2.3509528e-38
-6.9497743 2.073194 -1.5415875 2.3509528e-38
-6.9732857 2.040462 -1.5444088 2.3509528e-38
-6.9715524 2.0003407 -1.5416813 2.3509528e-38
-7.019969 1.9744636 -1.5500779 2.3509528e-38
-7.0462198 1.9420465 -1.5536051 2.3509528e-38
-7.0599451 1.9060665 -1.554407 2.3509528e-38
-7.1079326 1.8791022 -1.5627822 2.3509528e-38
-7.1751714 1.8566917 -1.575404 2.3509528e-38
-7.0765162 2.4384646 -1.4097815 2.3509528e-38
-7.0040293 2.3724854 -1.392844 2.3509528e-38
-7.0088997 2.3332505 -1.391361 2.3509528e-38
-6.9382186 2.2693896 -1.3749493 2.3509528e-38
-6.9542432 2.234345 -1.375785 2.3509528e-38
-6.9676127 2.1984127 -1.3761311 2.3509528e-38
-6.9347496 2.148138 -1.3673977 2.3509528e-38
-6.9557695 2.1147523 -1.3693376 2.3509528e-38
-7.0056396 2.0898592 -1.3769796 2.3509528e-38
-6.9928951 2.0462 -1.3723475 2.3509528e-38
-7.0175138 2.0135283 -1.3750885 2.3509528e-38
-7.0117865 1.9721621 -1.3719217 2.3509528e-38
-7.023788 1.935864 -1.3722655 2.3509528e-38
-7.0780463 1.9109535 -1.38089 2.3509528e-38
-7.1471124 1.88946 -1.3924129 2.3509528e-38
-7.1803217 1.8580245 -1.3969661 2.3509528e-38
-7.2585454 1.8377231 -1.4102912 2.3509528e-38
-7.1733809 2.388006 -1.2425654 2.3509528e-38
-7.0991507 2.3220282 -1.227582 2.3509528e-38
-7.0985126 2.2806976 -1.2253875 2.3509528e-38
-7.0887914 2.2366469 -1.2216685 2.3509528e-38
-7.0796642 2.1930275 -1.2180977 2.3509528e-38
-7.0947523 2.1570072 -1.2187314 2.3509528e-38
-7.0889707 2.1147177 -1.2158172 2.3509528e-38
-7.0973816 2.0767739 -1.2153759 2.3509528e-38
-7.1251431 2.0444105 -1.2182779 2.3509528e-38
-7.1328478 2.0062122 -1.2177804 2.3509528e-38
-7.1651845 1.9748349 -1.221517 2.3509528e-38
-7.2434936 1.9556215 -1.2331024 2.3509528e-38
-7.3519454 1.9436111 -1.2498132 2.3509528e-38
