# .PCD v0.7 - Point Cloud Data file format
VERSION 0.7
FIELDS x y z rgb
SIZE 4 4 4 4
TYPE F F F F
COUNT 1 1 1 1
WIDTH 91
HEIGHT 1
VIEWPOINT 0 0 0 1 0 0 0
POINTS 91
DATA ascii
4.8470368 2.8363755 -1.8974001 2.3509528e-38
4.785955 2.8344152 -1.8792799 2.3509528e-38
4.7498116 2.8467464 -1.8709215 2.3509528e-38
4.7118487 2.8576725 -1.8618433 2.3509528e-38
4.7139812 2.892874 -1.8686523 2.3509528e-38
4.6850338 2.9090273 -1.863197 2.3509528e-38
4.6736197 2.9359965 -1.8647529 2.3509528e-38
4.6382761 2.9478152 -1.8567909 2.3509528e-38
4.6422009 2.9845881 -1.8645998 2.3509528e-38
4.6269536 3.009182 -1.8647859 2.3509528e-38
4.6309881 3.0464683 -1.8728225 2.3509528e-38
4.6207185 3.0745373 -1.8751615 2.3509528e-38
4.6031265 3.0977671 -1.8745867 2.3509528e-38
4.6256208 3.1482594 -1.8904421 2.3509528e-38
4.6817737 3.222518 -1.9202689 2.3509528e-38
4.9719424 2.9094675 -1.798051 2.3509528e-38
4.9451585 2.9287012 -1.7938923 2.3509528e-38
4.8403592 2.9010153 -1.7613679 2.3509528e-38
4.8100605 2.9172366 -1.7558832 2.3509528e-38
4.7679925 2.9260199 -1.7461017 2.3509528e-38
4.7661071 2.9593675 -1.7510685 2.3509528e-38
4.7175207 2.9635754 -1.7389016 2.3509528e-38
4.7141185 2.9960163 -1.7434127 2.3509528e-38
4.7004857 3.0220609 -1.7442058 2.3509528e-38
4.7049122 3.0598831 -1.7517763 2.3509528e-38
4.6924925 3.0869286 -1.7531531 2.3509528e-38
4.7071085 3.1320198 -1.7647235 2.3509528e-38
4.7733665 3.2123334 -1.7958524 2.3509528e-38
4.7597375 3.2395411 -1.7970893 2.3509528e-38
4.7323074 3.2573009 -1.7931552 2.3509528e-38
4.861834 2.9138858 -1.6254227 2.3509528e-38
4.8148966 2.9201696 -1.6148261 2.3509528e-38
4.7885041 2.9386072 -1.6111188 2.3509528e-38
4.7448449 2.9461653 -1.6016037 2.3509528e-38
4.7323246 2.9728751 -1.6026158 2.3509528e-38
4.7220411 3.0010512 -1.6044389 2.3509528e-38
4.7088456 3.0274355 -1.6053257 2.3509528e-38
4.6973705 3.0549784 -1.6068512 2.3509528e-38
4.6932549 3.08743 -1.6109575 2.3509528e-38
4.7326288 3.1490004 -1.6301165 2.3509528e-38
4.8816481 2.9257612 -1.4896158 2.3509528e-38
4.8028817 2.9128828 -1.47022 2.3509528e-38
4.7877789 2.9381623 -1.4702914 2.3509528e-38
4.7527366 2.9510655 -1.4642607 2.3509528e-38
4.7305403 2.9717543 -1.4622017 2.3509528e-38
4.7123966 2.9949219 -1.4614261 2.3509528e-38
4.6911907 3.0160847 -1.4597329 2.3509528e-38
4.7043185 3.0594971 -1.4687883 2.3509528e-38
4.700129 3.0919523 -1.4725205 2.3509528e-38
4.7134161 3.1362166 -1.4818137 2.3509528e-38
4.8566804 2.9107974 -1.3420107 2.3509528e-38
4.8243227 2.9258864 -1.3372893 2.3509528e-38
4.7542691 2.9175978 -1.3220921 2.3509528e-38
4.7590189 2.9549661 -1.3277023 2.3509528e-38
4.7586155 2.9893913 -1.3319434 2.3509528e-38
4.7285423 3.0051832 -1.3279171 2.3509528e-38
4.7108345 3.0287142 -1.3273846 2.3509528e-38
4.6783948 3.0426373 -1.3227201 2.3509528e-38
4.6865177 3.082998 -1.3295677 2.3509528e-38
4.7151685 3.1373827 -1.3423434 2.3509528e-38
4.8768377 2.9228783 -1.2085559 2.3509528e-38
4.7880821 2.9039071 -1.1903169 2.3509528e-38
4.7822328 2.9347587 -1.1926709 2.3509528e-38
4.7458315 2.9467781 -1.1874288 2.3509528e-38
4.7310724 2.9720886 -1.1876179 2.3509528e-38
4.7300334 3.0061309 -1.1912965 2.3509528e-38
4.7191706 3.0340738 -1.1925501 2.3509528e-38
4.6791968 3.0431588 -1.1864635 2.3509528e-38
4.7064376 3.0961022 -1.1974695 2.3509528e-38
4.716536 3.1382926 -1.2042081 2.3509528e-38
4.8487468 2.9406991 -1.0681021 2.3509528e-38
4.7891383 2.9389963 -1.0583506 2.3509528e-38
4.7523265 2.9508109 -1.0536195 2.3509528e-38
4.7553077 2.9873133 -1.0577377 2.3509528e-38
4.7271676 3.0043094 -1.054967 2.3509528e-38
4.7158961 3.0319686 -1.0559841 2.3509528e-38
4.7458525 3.0865088 -1.0663003 2.3509528e-38
4.7068143 3.0963502 -1.0611615 2.3509528e-38
4.7420335 3.1552579 -1.072816 2.3509528e-38
4.8343601 2.9667482 -0.93221605 2.3509528e-38
4.7972465 2.9787023 -0.92805761 2.3509528e-38
4.7623148 2.9917152 -0.92432112 2.3509528e-38
4.7590632 3.0245802 -0.92675465 2.3509528e-38
4.7308669 3.0415938 -0.9243561 2.3509528e-38
4.7280788 3.0749497 -0.92694807 2.3509528e-38
4.7325163 3.1132579 -0.93100482 2.3509528e-38
4.7984447 2.9794464 -0.79376799 2.3509528e-38
4.7831955 3.0048325 -0.79384023 2.3509528e-38
4.7508216 3.0193427 -0.79108328 2.3509528e-38
4.7398362 3.0473602 -0.79190314 2.3509528e-38
4.7595611 3.0954244 -0.79789877 2.3509528e-38
