# .PCD v0.7 - Point Cloud Data file format
VERSION 0.7
FIELDS x y z rgb
SIZE 4 4 4 4
TYPE F F F F
COUNT 1 1 1 1
WIDTH 48
HEIGHT 1
VIEWPOINT 0 0 0 1 0 0 0
POINTS 48
DATA ascii
-8.5283537 8.7528334 -2.3017762 2.3509528e-38
-8.2895107 8.7797976 -1.9845099 2.3509528e-38
-8.2835522 8.681859 -1.9721608 2.3509528e-38
-8.3003016 8.6086063 -1.9653777 2.3509528e-38
-8.3689156 8.5891991 -1.9709359 2.3509528e-38
-8.4059391 8.5372009 -1.9690884 2.3509528e-38
-8.4976788 8.5403595 -1.980064 2.3509528e-38
-8.0918045 8.9386349 -1.6944571 2.3509528e-38
-8.0346441 8.7825184 -1.6728238 2.3509528e-38
-8.0534601 8.7109537 -1.6672111 2.3509528e-38
-8.065834 8.6331053 -1.6603812 2.3509528e-38
-8.0802183 8.5581255 -1.6540843 2.3509528e-38
-8.1150732 8.5052795 -1.6520697 2.3509528e-38
-8.159626 8.4627047 -1.6520857 2.3509528e-38
-8.2157726 8.4320259 -1.6544815 2.3509528e-38
-8.2659187 8.3949947 -1.6556948 2.3509528e-38
-8.2999735 8.3416615 -1.6537346 2.3509528e-38
-8.3690376 8.323349 -1.658779 2.3509528e-38
-8.4370241 8.3034468 -1.663604 2.3509528e-38
-8.5302801 8.3076496 -1.673382 2.3509528e-38
-8.6702566 8.3558636 -1.6922253 2.3509528e-38
-8.1329098 9.0792522 -1.4245943 2.3509528e-38
-8.034132 8.8749275 -1.3991234 2.3509528e-38
-8.0350752 8.7829885 -1.3912505 2.3509528e-38
-8.0232782 8.6783075 -1.381312 2.3509528e-38
-8.0539789 8.6204166 -1.3787987 2.3509528e-38
-8.0665741 8.5436745 -1.3732687 2.3509528e-38
-8.1064539 8.4962454 -1.3724568 2.3509528e-38
-8.1749105 8.4785566 -1.376503 2.3509528e-38
-8.200285 8.4161301 -1.3733281 2.3509528e-38
-8.2301445 8.3586617 -1.3709717 2.3509528e-38
-8.2861853 8.3278036 -1.373016 2.3509528e-38
-8.3798513 8.3341036 -1.3812783 2.3509528e-38
-8.4234924 8.2901287 -1.3812895 2.3509528e-38
-8.515873 8.2936182 -1.3892899 2.3509528e-38
-8.5975208 8.2857647 -1.3955047 2.3509528e-38
-8.7561512 8.3505545 -1.4141281 2.3509528e-38
-8.1705818 8.8376369 -1.1234325 2.3509528e-38
-8.1665573 8.7409124 -1.1165636 2.3509528e-38
-8.1848154 8.6689091 -1.1128314 2.3509528e-38
-8.2276812 8.6233015 -1.1124982 2.3509528e-38
-8.2557011 8.5623484 -1.1102024 2.3509528e-38
-8.29984 8.5183058 -1.110118 2.3509528e-38
-8.3527565 8.4831877 -1.1112324 2.3509528e-38
-8.4079189 8.4501486 -1.1126627 2.3509528e-38
-8.4947615 8.4483871 -1.1182789 2.3509528e-38
-8.5558748 8.4204159 -1.1204978 2.3509528e-38
-8.6977816 8.4707794 -1.1332514 2.3509528e-38
