# .PCD v0.7 - Point Cloud Data file format
VERSION 0.7
FIELDS x y z rgb
SIZE 4 4 4 4
TYPE F F F F
COUNT 1 1 1 1
WIDTH 59
HEIGHT 1
VIEWPOINT 0 0 0 1 0 0 0
POINTS 59
DATA ascii
-4.0622187 10.192554 -2.3322785 2.3509528e-38
-4.124362 10.192792 -2.3372481 2.3509528e-38
-3.9088788 10.11488 -2.0424588 2.3509528e-38
-3.9564736 10.080558 -2.0396883 2.3509528e-38
-3.9965422 10.027764 -2.0332172 2.3509528e-38
-4.0431166 9.9920044 -2.030236 2.3509528e-38
-4.0979581 9.9768038 -2.0314846 2.3509528e-38
-4.1668224 9.9950571 -2.0396209 2.3509528e-38
-3.6876526 10.171744 -1.7782115 2.3509528e-38
-3.7025442 10.04812 -1.7599686 2.3509528e-38
-3.7387793 9.9848108 -1.7522885 2.3509528e-38
-3.7664168 9.9002752 -1.740894 2.3509528e-38
-3.8193007 9.8830814 -1.7413672 2.3509528e-38
-3.8489418 9.8065815 -1.7314194 2.3509528e-38
-3.9166586 9.8273277 -1.7386833 2.3509528e-38
-3.9575469 9.7805309 -1.7340506 2.3509528e-38
-4.0100088 9.7626848 -1.7345896 2.3509528e-38
-4.06985 9.7624464 -1.738314 2.3509528e-38
-4.1416721 9.7899151 -1.7470469 2.3509528e-38
-4.19416 9.7709255 -1.7475578 2.3509528e-38
-4.2743158 9.8153849 -1.7594928 2.3509528e-38
-4.3701382 9.893424 -1.777564 2.3509528e-38
-3.6102402 10.123522 -1.5104667 2.3509528e-38
-3.6339686 10.023666 -1.4983896 2.3509528e-38
-3.6757252 9.975338 -1.4940251 2.3509528e-38
-3.7060878 9.8975048 -1.4852573 2.3509528e-38
-3.7455194 9.8453455 -1.4803561 2.3509528e-38
-3.7861433 9.7972813 -1.4760932 2.3509528e-38
-3.8410912 9.7865791 -1.477494 2.3509528e-38
-3.8823411 9.7412214 -1.4736985 2.3509528e-38
-3.9331424 9.7202187 -1.4736202 2.3509528e-38
-3.9864023 9.7052126 -1.474493 2.3509528e-38
-4.0504007 9.7157927 -1.479306 2.3509528e-38
-4.1061869 9.7060366 -1.4810774 2.3509528e-38
-4.1716452 9.7184734 -1.4862918 2.3509528e-38
-4.2324176 9.7191706 -1.4897711 2.3509528e-38
-4.3056612 9.7474556 -1.4975458 2.3509528e-38
-4.3891382 9.7971611 -1.5086964 2.3509528e-38
-4.5027676 9.9112215 -1.5298748 2.3509528e-38
-3.6831684 10.328021 -1.2815292 2.3509528e-38
-3.6749792 10.136787 -1.2601734 2.3509528e-38
-3.7088892 10.06534 -1.2536912 2.3509528e-38
-3.7423182 9.9942617 -1.2472644 2.3509528e-38
-3.771996 9.9149408 -1.239816 2.3509528e-38
-3.8220193 9.8901167 -1.2392001 2.3509528e-38
-3.8718972 9.8650694 -1.2385879 2.3509528e-38
-3.9130392 9.8182459 -1.2352674 2.3509528e-38
-3.9692583 9.809474 -1.2367647 2.3509528e-38
-4.018342 9.7829723 -1.2360623 2.3509528e-38
-4.0723915 9.7685432 -1.2369194 2.3509528e-38
-4.1430769 9.7932348 -1.242779 2.3509528e-38
-4.1952815 9.7735367 -1.243053 2.3509528e-38
-4.2670798 9.798769 -1.24909 2.3509528e-38
-4.351275 9.8507204 -1.2586027 2.3509528e-38
-4.4667139 9.9703207 -1.276858 2.3509528e-38
-4.0062599 10.207406 -1.0235195 2.3509528e-38
-4.0527124 10.168701 -1.0217547 2.3509528e-38
-4.1002474 10.133196 -1.0203328 2.3509528e-38
-4.1670299 10.144965 -1.0237033 2.3509528e-38
