# .PCD v0.7 - Point Cloud Data file format
VERSION 0.7
FIELDS x y z rgb
SIZE 4 4 4 4
TYPE F F F F
COUNT 1 1 1 1
WIDTH 54
HEIGHT 1
VIEWPOINT 0 0 0 1 0 0 0
POINTS 54
DATA ascii
4.0950518 6.1090779 -1.9249729 2.3509528e-38
4.0373383 6.091784 -1.9128284 2.3509528e-38
3.9838254 6.0800147 -1.9025493 2.3509528e-38
3.9508336 6.0991697 -1.9020363 2.3509528e-38
3.9273798 6.133184 -1.9061972 2.3509528e-38
3.9020686 6.164577 -1.9095705 2.3509528e-38
3.8852603 6.2098174 -1.9172491 2.3509528e-38
4.1523085 6.0562344 -1.7403923 2.3509528e-38
4.0764132 6.0128808 -1.7217691 2.3509528e-38
4.0277505 6.0086765 -1.7144958 2.3509528e-38
3.963551 5.9804492 -1.7004895 2.3509528e-38
3.9351845 6.0057797 -1.7018032 2.3509528e-38
3.9124618 6.0399327 -1.7056457 2.3509528e-38
3.8754795 6.052134 -1.7033308 2.3509528e-38
3.8416398 6.0691104 -1.7024175 2.3509528e-38
3.8173552 6.1012845 -1.7058059 2.3509528e-38
3.7880416 6.1256132 -1.7070326 2.3509528e-38
3.789716 6.2007504 -1.7224114 2.3509528e-38
3.7908826 6.2763653 -1.7378713 2.3509528e-38
4.0908923 6.1028733 -1.5617226 2.3509528e-38
4.0458403 6.1046119 -1.5567189 2.3509528e-38
3.9988296 6.1029134 -1.5509189 2.3509528e-38
3.9491315 6.0965424 -1.5440177 2.3509528e-38
3.9313414 6.1393704 -1.5496237 2.3509528e-38
3.9087934 6.1752014 -1.5534745 2.3509528e-38
3.8856156 6.2103848 -1.55718 2.3509528e-38
4.1072545 6.1272826 -1.3893759 2.3509528e-38
4.0464625 6.1055508 -1.3796194 2.3509528e-38
4.0093532 6.1189747 -1.3778845 2.3509528e-38
3.9603074 6.1137953 -1.3720244 2.3509528e-38
3.9368396 6.1479568 -1.3750405 2.3509528e-38
3.9135642 6.1827383 -1.3782123 2.3509528e-38
3.8788106 6.1995087 -1.3773992 2.3509528e-38
4.1110263 6.1329088 -1.2134552 2.3509528e-38
4.031322 6.0827055 -1.1993243 2.3509528e-38
3.9926643 6.093504 -1.1973102 2.3509528e-38
3.9514306 6.1000915 -1.194518 2.3509528e-38
3.9254065 6.1301022 -1.1963488 2.3509528e-38
3.8916273 6.1480818 -1.1958599 2.3509528e-38
3.8991761 6.232059 -1.2082019 2.3509528e-38
4.1068568 6.1266894 -1.0365572 2.3509528e-38
4.0360627 6.0898585 -1.0267322 2.3509528e-38
3.9971781 6.1003928 -1.0249615 2.3509528e-38
3.9603038 6.1137896 -1.0237101 2.3509528e-38
3.9224153 6.1254311 -1.0222025 2.3509528e-38
3.9012418 6.163271 -1.0250903 2.3509528e-38
3.8820255 6.2046471 -1.0285733 2.3509528e-38
4.097291 6.1124187 -0.86002755 2.3509528e-38
4.0318165 6.0834517 -0.85296643 2.3509528e-38
3.9862478 6.0837116 -0.85006124 2.3509528e-38
3.9519289 6.1008606 -0.84955108 2.3509528e-38
3.9120212 6.109199 -0.8478449 2.3509528e-38
3.888731 6.1435061 -0.8497653 2.3509528e-38
3.8834133 6.2068653 -0.85570157 2.3509528e-38
